# .PCD v0.7 - Point Cloud Data file format
VERSION 0.7
FIELDS x y z
SIZE 4 4 4
TYPE F F F
COUNT 1 1 1
WIDTH 1395
HEIGHT 1
VIEWPOINT 0 0 0 1 0 0 0
POINTS 1395
DATA ascii
0.11823913 0.0043210313 0.45100003
0.11876085 0.0043114503 0.45000002
0.11901345 0.0042922883 0.44800001
0.11979386 0.0042922883 0.44800001
0.12030514 0.0042827073 0.44700003
0.12081293 0.0042731264 0.44600001
0.12131725 0.0042635454 0.44500002
0.12209243 0.0042635454 0.44500002
0.12259152 0.0042539644 0.44400004
0.12336496 0.0042539644 0.44400004
0.12302005 0.0042156405 0.44000003
0.12378653 0.0042156405 0.44000003
0.12426993 0.004206059 0.43900001
0.12474985 0.0041964781 0.43800002
0.12551285 0.0041964781 0.43800002
0.12598754 0.0041868971 0.43700001
0.12616871 0.0041677351 0.43500003
0.12692648 0.0041677351 0.43500003
0.12739073 0.0041581541 0.43400002
0.12785149 0.0041485731 0.43300003
0.12830876 0.0041389922 0.43200001
0.12906131 0.0041389922 0.43200001
0.12951335 0.0041294112 0.43100002
0.13026415 0.0041294112 0.43100002
0.13101496 0.0041294112 0.43100002
0.13176575 0.0041294112 0.43100002
0.13251656 0.0041294112 0.43100002
0.13295816 0.0041198302 0.43000001
0.13370723 0.0041198302 0.43000001
0.13445628 0.0041198302 0.43000001
0.13520534 0.0041198302 0.43000001
0.13563822 0.0041102492 0.42900002
0.13574971 0.0040910873 0.42700002
0.13649355 0.0040910873 0.42700002
0.13723738 0.0040910873 0.42700002
0.13798122 0.0040910873 0.42700002
0.13840017 0.0040815063 0.42600003
0.13914226 0.0040815063 0.42600003
0.13988435 0.0040815063 0.42600003
0.14029634 0.0040719253 0.42500001
0.14103669 0.0040719253 0.42500001
0.14177704 0.0040719253 0.42500001
0.14251739 0.0040719253 0.42500001
0.14292066 0.0040623443 0.42400002
0.14365926 0.0040623443 0.42400002
0.14473844 0.0040719253 0.42500001
0.14547879 0.0040719253 0.42500001
0.1458751 0.0040623443 0.42400002
0.14523055 0.0040240204 0.42000002
0.14596219 0.0040240204 0.42000002
0.14669383 0.0040240204 0.42000002
0.14742547 0.0040240204 0.42000002
0.1481571 0.0040240204 0.42000002
0.14924325 0.0040336014 0.42100003
0.14997663 0.0040336014 0.42100003
0.15106799 0.0040431824 0.42200002
0.15144339 0.0040336014 0.42100003
0.15217677 0.0040336014 0.42100003
0.15254694 0.0040240204 0.42000002
0.15364353 0.0040336014 0.42100003
0.15401024 0.0040240204 0.42000002
0.15474187 0.0040240204 0.42000002
0.15547352 0.0040240204 0.42000002
0.15620515 0.0040240204 0.42000002
0.15693679 0.0040240204 0.42000002
0.15766843 0.0040240204 0.42000002
0.15840007 0.0040240204 0.42000002
0.15913171 0.0040240204 0.42000002
0.15986335 0.0040240204 0.42000002
0.16059498 0.0040240204 0.42000002
0.16171074 0.0040336014 0.42100003
0.16244413 0.0040336014 0.42100003
0.16317751 0.0040336014 0.42100003
0.16391088 0.0040336014 0.42100003
0.16503535 0.0040431824 0.42200002
0.1661633 0.0040527633 0.42300001
0.16690016 0.0040527633 0.42300001
0.16763702 0.0040527633 0.42300001
0.16797584 0.0040431824 0.42200002
0.16911076 0.0040527633 0.42300001
0.16984762 0.0040527633 0.42300001
0.11692653 0.0051179961 0.45200002
0.11771391 0.0051179961 0.45200002
0.11823913 0.0051066731 0.45100003
0.11876085 0.0050953501 0.45000002
0.1192791 0.0050840275 0.44900003
0.11979386 0.0050727045 0.44800001
0.12057428 0.0050727045 0.44800001
0.12081293 0.0050500585 0.44600001
0.12158987 0.0050500585 0.44600001
0.12209243 0.0050387355 0.44500002
0.12259152 0.0050274124 0.44400004
0.12308712 0.0050160894 0.44300002
0.12357923 0.0050047664 0.44200003
0.12406786 0.0049934434 0.44100001
0.12426993 0.0049707973 0.43900001
0.12503468 0.0049707973 0.43900001
0.1257994 0.0049707973 0.43900001
0.12598754 0.0049481513 0.43700001
0.12645875 0.0049368283 0.43600002
0.12692648 0.0049255053 0.43500003
0.12768425 0.0049255053 0.43500003
0.12814675 0.0049141822 0.43400002
0.12860577 0.0049028592 0.43300003
0.12906131 0.0048915362 0.43200001
0.12981385 0.0048915362 0.43200001
0.13056639 0.0048915362 0.43200001
0.13131894 0.0048915362 0.43200001
0.13176575 0.0048802132 0.43100002
0.13251656 0.0048802132 0.43100002
0.13326736 0.0048802132 0.43100002
0.13370723 0.0048688902 0.43000001
0.13445628 0.0048688902 0.43000001
0.13520534 0.0048688902 0.43000001
0.13563822 0.0048575671 0.42900002
0.13606763 0.0048462441 0.42800003
0.13649355 0.0048349211 0.42700002
0.13723738 0.0048349211 0.42700002
0.13798122 0.0048349211 0.42700002
0.13872504 0.0048349211 0.42700002
0.13946888 0.0048349211 0.42700002
0.13988435 0.0048235981 0.42600003
0.14062645 0.0048235981 0.42600003
0.14136854 0.0048235981 0.42600003
0.14177704 0.0048122755 0.42500001
0.14251739 0.0048122755 0.42500001
0.14292066 0.0048009525 0.42400002
0.14365926 0.0048009525 0.42400002
0.14473844 0.0048122755 0.42500001
0.14513648 0.0048009525 0.42400002
0.1458751 0.0048009525 0.42400002
0.1466137 0.0048009525 0.42400002
0.14735231 0.0048009525 0.42400002
0.14704309 0.0047669834 0.42100003
0.14777648 0.0047669834 0.42100003
0.14850986 0.0047669834 0.42100003
0.14959775 0.0047783065 0.42200002
0.15033287 0.0047783065 0.42200002
0.15106799 0.0047783065 0.42200002
0.15180312 0.0047783065 0.42200002
0.15253824 0.0047783065 0.42200002
0.15327336 0.0047783065 0.42200002
0.15400849 0.0047783065 0.42200002
0.15437692 0.0047669834 0.42100003
0.1551103 0.0047669834 0.42100003
0.15584369 0.0047669834 0.42100003
0.15657707 0.0047669834 0.42100003
0.15731046 0.0047669834 0.42100003
0.15804383 0.0047669834 0.42100003
0.15877721 0.0047669834 0.42100003
0.15913171 0.0047556604 0.42000002
0.15986335 0.0047556604 0.42000002
0.16097736 0.0047669834 0.42100003
0.16171074 0.0047669834 0.42100003
0.16244413 0.0047669834 0.42100003
0.1635651 0.0047783065 0.42200002
0.16430022 0.0047783065 0.42200002
0.16542643 0.0047896295 0.42300001
0.1661633 0.0047896295 0.42300001
0.16690016 0.0047896295 0.42300001
0.16803333 0.0048009525 0.42400002
0.1683739 0.0047896295 0.42300001
0.16951054 0.0048009525 0.42400002
0.11692653 0.0059053805 0.45200002
0.11771391 0.0059053805 0.45200002
0.11823913 0.0058923154 0.45100003
0.11902477 0.0058923154 0.45100003
0.1192791 0.0058661853 0.44900003
0.12006126 0.0058661853 0.44900003
0.12057428 0.0058531202 0.44800001
0.1213547 0.0058531202 0.44800001
0.12158987 0.0058269906 0.44600001
0.12209243 0.0058139255 0.44500002
0.12259152 0.0058008605 0.44400004
0.12308712 0.0057877954 0.44300002
0.12357923 0.0057747304 0.44200003
0.12406786 0.0057616653 0.44100001
0.12455301 0.0057486002 0.44000003
0.12503468 0.0057355352 0.43900001
0.1257994 0.0057355352 0.43900001
0.12656415 0.0057355352 0.43900001
0.12645875 0.0056963405 0.43600002
0.12721826 0.0056963405 0.43600002
0.12768425 0.0056832754 0.43500003
0.12844202 0.0056832754 0.43500003
0.12890278 0.0056702103 0.43400002
0.1296588 0.0056702103 0.43400002
0.12981385 0.0056440802 0.43200001
0.13056639 0.0056440802 0.43200001
0.13131894 0.0056440802 0.43200001
0.13207148 0.0056440802 0.43200001
0.13251656 0.0056310152 0.43100002
0.13326736 0.0056310152 0.43100002
0.13401817 0.0056310152 0.43100002
0.13445628 0.0056179506 0.43000001
0.13520534 0.0056179506 0.43000001
0.13563822 0.0056048855 0.42900002
0.13606763 0.0055918205 0.42800003
0.13681321 0.0055918205 0.42800003
0.13755877 0.0055918205 0.42800003
0.13830435 0.0055918205 0.42800003
0.13872504 0.0055787554 0.42700002
0.13946888 0.0055787554 0.42700002
0.14021271 0.0055787554 0.42700002
0.14095655 0.0055787554 0.42700002
0.14170039 0.0055787554 0.42700002
0.14211063 0.0055656903 0.42600003
0.14251739 0.0055526253 0.42500001
0.14325774 0.0055526253 0.42500001
0.14399809 0.0055526253 0.42500001
0.14473844 0.0055526253 0.42500001
0.14513648 0.0055395602 0.42400002
0.1458751 0.0055395602 0.42400002
0.1466137 0.0055395602 0.42400002
0.14735231 0.0055395602 0.42400002
0.14809091 0.0055395602 0.42400002
0.14882952 0.0055395602 0.42400002
0.14921537 0.0055264952 0.42300001
0.14995225 0.0055264952 0.42300001
0.15068911 0.0055264952 0.42300001
0.15142597 0.0055264952 0.42300001
0.15216284 0.0055264952 0.42300001
0.1528997 0.0055264952 0.42300001
0.15363657 0.0055264952 0.42300001
0.15437344 0.0055264952 0.42300001
0.15474361 0.0055134306 0.42200002
0.15547873 0.0055134306 0.42200002
0.15584369 0.0055003655 0.42100003
0.15657707 0.0055003655 0.42100003
0.15731046 0.0055003655 0.42100003
0.15804383 0.0055003655 0.42100003
0.15877721 0.0055003655 0.42100003
0.1595106 0.0055003655 0.42100003
0.16024397 0.0055003655 0.42100003
0.16097736 0.0055003655 0.42100003
0.16209485 0.0055134306 0.42200002
0.16321583 0.0055264952 0.42300001
0.16395269 0.0055264952 0.42300001
0.16507889 0.0055395602 0.42400002
0.1658175 0.0055395602 0.42400002
0.16655612 0.0055395602 0.42400002
0.16768928 0.0055526253 0.42500001
0.16842964 0.0055526253 0.42500001
0.16916999 0.0055526253 0.42500001
0.11771391 0.0066927643 0.45200002
0.11823913 0.0066779573 0.45100003
0.11902477 0.0066779573 0.45100003
0.11954476 0.0066631506 0.45000002
0.12006126 0.0066483435 0.44900003
0.12057428 0.0066335364 0.44800001
0.1213547 0.0066335364 0.44800001
0.12213511 0.0066335364 0.44800001
0.1223668 0.0066039222 0.44600001
0.12259152 0.0065743085 0.44400004
0.12336496 0.0065743085 0.44400004
0.12357923 0.0065446943 0.44200003
0.12406786 0.0065298872 0.44100001
0.12483608 0.0065298872 0.44100001
0.12531948 0.0065150806 0.44000003
0.12608597 0.0065150806 0.44000003
0.12656415 0.0065002735 0.43900001
0.12732889 0.0065002735 0.43900001
0.12751006 0.0064706593 0.43700001
0.12797777 0.0064558522 0.43600002
0.12873729 0.0064558522 0.43600002
0.12919979 0.0064410456 0.43500003
0.1296588 0.0064262385 0.43400002
0.13011435 0.0064114314 0.43300003
0.13056639 0.0063966243 0.43200001
0.13131894 0.0063966243 0.43200001
0.13207148 0.0063966243 0.43200001
0.13282402 0.0063966243 0.43200001
0.13326736 0.0063818176 0.43100002
0.13401817 0.0063818176 0.43100002
0.13476896 0.0063818176 0.43100002
0.13551977 0.0063818176 0.43100002
0.13595439 0.0063670105 0.43000001
0.13670346 0.0063670105 0.43000001
0.13745251 0.0063670105 0.43000001
0.13755877 0.0063373963 0.42800003
0.13830435 0.0063373963 0.42800003
0.13904993 0.0063373963 0.42800003
0.13946888 0.0063225892 0.42700002
0.14021271 0.0063225892 0.42700002
0.14095655 0.0063225892 0.42700002
0.14170039 0.0063225892 0.42700002
0.14244422 0.0063225892 0.42700002
0.14285272 0.0063077826 0.42600003
0.14325774 0.0062929755 0.42500001
0.14399809 0.0062929755 0.42500001
0.14473844 0.0062929755 0.42500001
0.14547879 0.0062929755 0.42500001
0.14621913 0.0062929755 0.42500001
0.14695948 0.0062929755 0.42500001
0.14769983 0.0062929755 0.42500001
0.14809091 0.0062781684 0.42400002
0.14882952 0.0062781684 0.42400002
0.14956813 0.0062781684 0.42400002
0.15030673 0.0062781684 0.42400002
0.15104535 0.0062781684 0.42400002
0.15178396 0.0062781684 0.42400002
0.15252256 0.0062781684 0.42400002
0.15326117 0.0062781684 0.42400002
0.15399978 0.0062781684 0.42400002
0.15473838 0.0062781684 0.42400002
0.1551103 0.0062633613 0.42300001
0.15584716 0.0062633613 0.42300001
0.15658404 0.0062633613 0.42300001
0.1573209 0.0062633613 0.42300001
0.1576841 0.0062485542 0.42200002
0.15841924 0.0062485542 0.42200002
0.15877721 0.0062337476 0.42100003
0.1595106 0.0062337476 0.42100003
0.16062461 0.0062485542 0.42200002
0.16212447 0.0062781684 0.42400002
0.16286308 0.0062781684 0.42400002
0.16360168 0.0062781684 0.42400002
0.16434029 0.0062781684 0.42400002
0.16546823 0.0062929755 0.42500001
0.16620858 0.0062929755 0.42500001
0.16694893 0.0062929755 0.42500001
0.16768928 0.0062929755 0.42500001
0.16842964 0.0062929755 0.42500001
0.16916999 0.0062929755 0.42500001
0.11823913 0.0074635996 0.45100003
0.11902477 0.0074635996 0.45100003
0.11954476 0.0074470504 0.45000002
0.12006126 0.0074305013 0.44900003
0.12057428 0.0074139526 0.44800001
0.1213547 0.0074139526 0.44800001
0.12213511 0.0074139526 0.44800001
0.1223668 0.0073808543 0.44600001
0.12286762 0.0073643057 0.44500002
0.12336496 0.0073477565 0.44400004
0.12385882 0.0073312074 0.44300002
0.12434919 0.0073146583 0.44200003
0.12483608 0.0072981096 0.44100001
0.12531948 0.0072815605 0.44000003
0.12608597 0.0072815605 0.44000003
0.12656415 0.0072650113 0.43900001
0.12732889 0.0072650113 0.43900001
0.12780184 0.0072484626 0.43800002
0.12827131 0.0072319135 0.43700001
0.12873729 0.0072153644 0.43600002
0.1294968 0.0072153644 0.43600002
0.12995756 0.0071988152 0.43500003
0.13041484 0.0071822666 0.43400002
0.13117087 0.0071822666 0.43400002
0.13162291 0.0071657174 0.43300003
0.13207148 0.0071491683 0.43200001
0.13282402 0.0071491683 0.43200001
0.13357657 0.0071491683 0.43200001
0.13401817 0.0071326196 0.43100002
0.13476896 0.0071326196 0.43100002
0.13551977 0.0071326196 0.43100002
0.13595439 0.0071160705 0.43000001
0.13670346 0.0071160705 0.43000001
0.13745251 0.0071160705 0.43000001
0.13788018 0.0070995213 0.42900002
0.13830435 0.0070829722 0.42800003
0.13904993 0.0070829722 0.42800003
0.13979551 0.0070829722 0.42800003
0.14054109 0.0070829722 0.42800003
0.14095655 0.0070664235 0.42700002
0.14170039 0.0070664235 0.42700002
0.14244422 0.0070664235 0.42700002
0.14318806 0.0070664235 0.42700002
0.14359482 0.0070498744 0.42600003
0.14433691 0.0070498744 0.42600003
0.14473844 0.0070333253 0.42500001
0.14547879 0.0070333253 0.42500001
0.14621913 0.0070333253 0.42500001
0.14695948 0.0070333253 0.42500001
0.14769983 0.0070333253 0.42500001
0.14844018 0.0070333253 0.42500001
0.14918053 0.0070333253 0.42500001
0.14992088 0.0070333253 0.42500001
0.15066123 0.0070333253 0.42500001
0.15104535 0.0070167766 0.42400002
0.15178396 0.0070167766 0.42400002
0.15252256 0.0070167766 0.42400002
0.15326117 0.0070167766 0.42400002
0.15399978 0.0070167766 0.42400002
0.15473838 0.0070167766 0.42400002
0.15547699 0.0070167766 0.42400002
0.15584716 0.0070002275 0.42300001
0.15658404 0.0070002275 0.42300001
0.1573209 0.0070002275 0.42300001
0.15805776 0.0070002275 0.42300001
0.15879463 0.0070002275 0.42300001
0.15990864 0.0070167766 0.42400002
0.16102614 0.0070333253 0.42500001
0.16138586 0.0070167766 0.42400002
0.16250683 0.0070333253 0.42500001
0.16324718 0.0070333253 0.42500001
0.16398753 0.0070333253 0.42500001
0.16472788 0.0070333253 0.42500001
0.16546823 0.0070333253 0.42500001
0.16620858 0.0070333253 0.42500001
0.16694893 0.0070333253 0.42500001
0.16808385 0.0070498744 0.42600003
0.16882594 0.0070498744 0.42600003
0.16956803 0.0070498744 0.42600003
0.11823913 0.0082492419 0.45100003
0.11902477 0.0082492419 0.45100003
0.11954476 0.0082309507 0.45000002
0.12006126 0.0082126595 0.44900003
0.12084342 0.0082126595 0.44900003
0.1213547 0.0081943683 0.44800001
0.12213511 0.0081943683 0.44800001
0.1223668 0.0081577869 0.44600001
0.12314373 0.0081577869 0.44600001
0.12336496 0.0081212046 0.44400004
0.12413841 0.0081212046 0.44400004
0.12463053 0.0081029134 0.44300002
0.12511916 0.0080846222 0.44200003
0.1256043 0.008066332 0.44100001
0.12637253 0.008066332 0.44100001
0.12685245 0.0080480408 0.44000003
0.12732889 0.0080297496 0.43900001
0.12809363 0.0080297496 0.43900001
0.12856483 0.0080114584 0.43800002
0.12903257 0.0079931673 0.43700001
0.1294968 0.0079748761 0.43600002
0.13025631 0.0079748761 0.43600002
0.13071534 0.0079565858 0.43500003
0.13117087 0.0079382947 0.43400002
0.13192689 0.0079382947 0.43400002
0.13237721 0.0079200035 0.43300003
0.13313149 0.0079200035 0.43300003
0.13357657 0.0079017123 0.43200001
0.13432911 0.0079017123 0.43200001
0.13508166 0.0079017123 0.43200001
0.13551977 0.0078834211 0.43100002
0.13627057 0.0078834211 0.43100002
0.13670346 0.0078651309 0.43000001
0.13745251 0.0078651309 0.43000001
0.13820158 0.0078651309 0.43000001
0.1386275 0.0078468397 0.42900002
0.13904993 0.0078285486 0.42800003
0.13979551 0.0078285486 0.42800003
0.14054109 0.0078285486 0.42800003
0.14128666 0.0078285486 0.42800003
0.14203224 0.0078285486 0.42800003
0.14244422 0.0078102574 0.42700002
0.14318806 0.0078102574 0.42700002
0.14393188 0.0078102574 0.42700002
0.14433691 0.0077919667 0.42600003
0.145079 0.0077919667 0.42600003
0.14547879 0.0077736755 0.42500001
0.14621913 0.0077736755 0.42500001
0.14730527 0.0077919667 0.42600003
0.14769983 0.0077736755 0.42500001
0.14844018 0.0077736755 0.42500001
0.14918053 0.0077736755 0.42500001
0.14992088 0.0077736755 0.42500001
0.15066123 0.0077736755 0.42500001
0.15140158 0.0077736755 0.42500001
0.15214193 0.0077736755 0.42500001
0.15252256 0.0077553843 0.42400002
0.15326117 0.0077553843 0.42400002
0.15399978 0.0077553843 0.42400002
0.15473838 0.0077553843 0.42400002
0.15547699 0.0077553843 0.42400002
0.15621561 0.0077553843 0.42400002
0.15695421 0.0077553843 0.42400002
0.15769282 0.0077553843 0.42400002
0.15843143 0.0077553843 0.42400002
0.15917003 0.0077553843 0.42400002
0.15990864 0.0077553843 0.42400002
0.16102614 0.0077736755 0.42500001
0.16176648 0.0077736755 0.42500001
0.1628892 0.0077919667 0.42600003
0.16363129 0.0077919667 0.42600003
0.16437338 0.0077919667 0.42600003
0.16511548 0.0077919667 0.42600003
0.16624691 0.0078102574 0.42700002
0.16659966 0.0077919667 0.42600003
0.16773458 0.0078102574 0.42700002
0.16847841 0.0078102574 0.42700002
0.16922225 0.0078102574 0.42700002
0.11981041 0.0090348832 0.45100003
0.12032866 0.0090148505 0.45000002
0.12084342 0.0089948177 0.44900003
0.12162558 0.0089948177 0.44900003
0.12213511 0.008974785 0.44800001
0.12264116 0.0089547513 0.44700003
0.12314373 0.0089347186 0.44600001
0.12336496 0.0088946521 0.44400004
0.12413841 0.0088946521 0.44400004
0.12463053 0.0088746194 0.44300002
0.12511916 0.0088545866 0.44200003
0.12588912 0.0088545866 0.44200003
0.12637253 0.0088345539 0.44100001
0.12714075 0.0088345539 0.44100001
0.12761892 0.0088145202 0.44000003
0.12809363 0.0087944875 0.43900001
0.12885836 0.0087944875 0.43900001
0.12903257 0.008754422 0.43700001
0.12979381 0.008754422 0.43700001
0.13025631 0.0087343883 0.43600002
0.13101582 0.0087343883 0.43600002
0.13147311 0.0087143555 0.43500003
0.13223088 0.0087143555 0.43500003
0.13268292 0.0086943228 0.43400002
0.13343894 0.0086943228 0.43400002
0.13388577 0.0086742891 0.43300003
0.13432911 0.0086542564 0.43200001
0.13508166 0.0086542564 0.43200001
0.1358342 0.0086542564 0.43200001
0.13627057 0.0086342236 0.43100002
0.13702138 0.0086342236 0.43100002
0.13777217 0.0086342236 0.43100002
0.13820158 0.0086141909 0.43000001
0.13895065 0.0086141909 0.43000001
0.13937482 0.0085941572 0.42900002
0.14012213 0.0085941572 0.42900002
0.14086945 0.0085941572 0.42900002
0.14128666 0.0085741244 0.42800003
0.14203224 0.0085741244 0.42800003
0.14277782 0.0085741244 0.42800003
0.1435234 0.0085741244 0.42800003
0.14393188 0.0085540917 0.42700002
0.14467572 0.0085540917 0.42700002
0.14541955 0.0085540917 0.42700002
0.14582109 0.0085340589 0.42600003
0.14690723 0.0085540917 0.42700002
0.14765106 0.0085540917 0.42700002
0.1483949 0.0085540917 0.42700002
0.14878945 0.0085340589 0.42600003
0.14953154 0.0085340589 0.42600003
0.15027364 0.0085340589 0.42600003
0.15101573 0.0085340589 0.42600003
0.15140158 0.0085140252 0.42500001
0.15214193 0.0085140252 0.42500001
0.15288228 0.0085140252 0.42500001
0.15326117 0.0084939925 0.42400002
0.15399978 0.0084939925 0.42400002
0.15473838 0.0084939925 0.42400002
0.15547699 0.0084939925 0.42400002
0.15621561 0.0084939925 0.42400002
0.15732439 0.0085140252 0.42500001
0.15806474 0.0085140252 0.42500001
0.15880509 0.0085140252 0.42500001
0.15954544 0.0085140252 0.42500001
0.16066293 0.0085340589 0.42600003
0.1617839 0.0085540917 0.42700002
0.16252774 0.0085540917 0.42700002
0.16327158 0.0085540917 0.42700002
0.16401541 0.0085540917 0.42700002
0.16475925 0.0085540917 0.42700002
0.16589066 0.0085741244 0.42800003
0.16663624 0.0085741244 0.42800003
0.16699074 0.0085540917 0.42700002
0.16773458 0.0085540917 0.42700002
0.16847841 0.0085540917 0.42700002
0.16922225 0.0085540917 0.42700002
0.11981041 0.0098205255 0.45100003
0.12059605 0.0098205255 0.45100003
0.12111256 0.0097987503 0.45000002
0.12162558 0.009776976 0.44900003
0.12213511 0.0097552007 0.44800001
0.12264116 0.0097334255 0.44700003
0.12314373 0.0097116502 0.44600001
0.12364281 0.0096898759 0.44500002
0.12413841 0.0096681006 0.44400004
0.12463053 0.0096463254 0.44300002
0.12511916 0.0096245511 0.44200003
0.12588912 0.0096245511 0.44200003
0.12665908 0.0096245511 0.44200003
0.12714075 0.0096027758 0.44100001
0.12761892 0.0095810005 0.44000003
0.12838541 0.0095810005 0.44000003
0.12885836 0.0095592253 0.43900001
0.12932783 0.009537451 0.43800002
0.12979381 0.0095156757 0.43700001
0.13055506 0.0095156757 0.43700001
0.13101582 0.0094939005 0.43600002
0.13177533 0.0094939005 0.43600002
0.13253485 0.0094939005 0.43600002
0.13298865 0.0094721252 0.43500003
0.13343894 0.0094503509 0.43400002
0.13419499 0.0094503509 0.43400002
0.13464005 0.0094285756 0.43300003
0.13539435 0.0094285756 0.43300003
0.1358342 0.0094068004 0.43200001
0.13658674 0.0094068004 0.43200001
0.13733929 0.0094068004 0.43200001
0.13809183 0.0094068004 0.43200001
0.13852298 0.0093850251 0.43100002
0.13895065 0.0093632508 0.43000001
0.1396997 0.0093632508 0.43000001
0.14012213 0.0093414756 0.42900002
0.14086945 0.0093414756 0.42900002
0.14161678 0.0093414756 0.42900002
0.14236408 0.0093414756 0.42900002
0.14277782 0.0093197003 0.42800003
0.1435234 0.0093197003 0.42800003
0.14426896 0.0093197003 0.42800003
0.14501454 0.0093197003 0.42800003
0.14541955 0.009297926 0.42700002
0.1465057 0.0093197003 0.42800003
0.14690723 0.009297926 0.42700002
0.14799684 0.0093197003 0.42800003
0.1483949 0.009297926 0.42700002
0.14913873 0.009297926 0.42700002
0.14988256 0.009297926 0.42700002
0.15062639 0.009297926 0.42700002
0.15137023 0.009297926 0.42700002
0.15175782 0.0092761507 0.42600003
0.15249991 0.0092761507 0.42600003
0.15288228 0.0092543755 0.42500001
0.15362263 0.0092543755 0.42500001
0.15436299 0.0092543755 0.42500001
0.15510334 0.0092543755 0.42500001
0.15547699 0.0092326002 0.42400002
0.15621561 0.0092326002 0.42400002
0.15843491 0.0093197003 0.42800003
0.15880857 0.009297926 0.42700002
0.15917875 0.0092761507 0.42600003
0.16029623 0.009297926 0.42700002
0.16104007 0.009297926 0.42700002
0.1621628 0.0093197003 0.42800003
0.16290836 0.0093197003 0.42800003
0.16365394 0.0093197003 0.42800003
0.16439952 0.0093197003 0.42800003
0.1651451 0.0093197003 0.42800003
0.16627826 0.0093414756 0.42900002
0.16702558 0.0093414756 0.42900002
0.1677729 0.0093414756 0.42900002
0.16852021 0.0093414756 0.42900002
0.16926754 0.0093414756 0.42900002
0.11981041 0.010606168 0.45100003
0.12059605 0.010606168 0.45100003
0.12111256 0.010582651 0.45000002
0.12162558 0.010559133 0.44900003
0.12213511 0.010535616 0.44800001
0.12291553 0.010535616 0.44800001
0.12341984 0.0105121 0.44700003
0.12392066 0.010488583 0.44600001
0.12441801 0.010465066 0.44500002
0.12491186 0.010441548 0.44400004
0.1256853 0.010441548 0.44400004
0.12617394 0.010418031 0.44300002
0.12665908 0.010394515 0.44200003
0.12714075 0.010370998 0.44100001
0.12790897 0.010370998 0.44100001
0.12838541 0.010347481 0.44000003
0.12885836 0.010323964 0.43900001
0.12932783 0.010300446 0.43800002
0.13009083 0.010300446 0.43800002
0.13055506 0.010276929 0.43700001
0.13131632 0.010276929 0.43700001
0.13177533 0.010253413 0.43600002
0.13253485 0.010253413 0.43600002
0.13329436 0.010253413 0.43600002
0.13374642 0.010229896 0.43500003
0.13450418 0.010229896 0.43500003
0.13495101 0.010206379 0.43400002
0.13570704 0.010206379 0.43400002
0.13646306 0.010206379 0.43400002
0.13690291 0.010182861 0.43300003
0.13765721 0.010182861 0.43300003
0.13809183 0.010159344 0.43200001
0.13884437 0.010159344 0.43200001
0.13927378 0.010135828 0.43100002
0.1396997 0.010112311 0.43000001
0.14044876 0.010112311 0.43000001
0.14119782 0.010112311 0.43000001
0.14194688 0.010112311 0.43000001
0.14236408 0.010088794 0.42900002
0.14311141 0.010088794 0.42900002
0.14385873 0.010088794 0.42900002
0.14460604 0.010088794 0.42900002
0.14535336 0.010088794 0.42900002
0.14576012 0.010065276 0.42800003
0.1465057 0.010065276 0.42800003
0.14725126 0.010065276 0.42800003
0.14799684 0.010065276 0.42800003
0.14874242 0.010065276 0.42800003
0.149488 0.010065276 0.42800003
0.14988256 0.010041759 0.42700002
0.15062639 0.010041759 0.42700002
0.15172473 0.010065276 0.42800003
0.15247031 0.010065276 0.42800003
0.15321587 0.010065276 0.42800003
0.15324201 0.010018243 0.42600003
0.15470703 0.010065276 0.42800003
0.15545261 0.010065276 0.42800003
0.15619819 0.010065276 0.42800003
0.15694375 0.010065276 0.42800003
0.15768933 0.010065276 0.42800003
0.15843491 0.010065276 0.42800003
0.15918049 0.010065276 0.42800003
0.15992606 0.010065276 0.42800003
0.16029623 0.010041759 0.42700002
0.16141722 0.010065276 0.42800003
0.1621628 0.010065276 0.42800003
0.16290836 0.010065276 0.42800003
0.16365394 0.010065276 0.42800003
0.16439952 0.010065276 0.42800003
0.16553095 0.010088794 0.42900002
0.16627826 0.010088794 0.42900002
0.16741492 0.010112311 0.43000001
0.16816399 0.010112311 0.43000001
0.16891304 0.010112311 0.43000001
0.12059605 0.01139181 0.45100003
0.1213817 0.01139181 0.45100003
0.12162558 0.011341291 0.44900003
0.12240773 0.011341291 0.44900003
0.12291553 0.011316033 0.44800001
0.12369595 0.011316033 0.44800001
0.12419851 0.011290774 0.44700003
0.1246976 0.011265514 0.44600001
0.12519319 0.011240256 0.44500002
0.1256853 0.011214997 0.44400004
0.12645875 0.011214997 0.44400004
0.12694564 0.011189737 0.44300002
0.12742905 0.011164479 0.44200003
0.12790897 0.01113922 0.44100001
0.12838541 0.01111396 0.44000003
0.12915188 0.01111396 0.44000003
0.1296231 0.011088702 0.43900001
0.13038784 0.011088702 0.43900001
0.13115257 0.011088702 0.43900001
0.13161682 0.011063443 0.43800002
0.13207757 0.011038183 0.43700001
0.13283883 0.011038183 0.43700001
0.13329436 0.011012925 0.43600002
0.13405387 0.011012925 0.43600002
0.13450418 0.010987666 0.43500003
0.13526195 0.010987666 0.43500003
0.13601972 0.010987666 0.43500003
0.13677749 0.010987666 0.43500003
0.13721909 0.010962407 0.43400002
0.13797511 0.010962407 0.43400002
0.13841149 0.010937148 0.43300003
0.13884437 0.010911888 0.43200001
0.13927378 0.01088663 0.43100002
0.1396997 0.010861371 0.43000001
0.14044876 0.010861371 0.43000001
0.14119782 0.010861371 0.43000001
0.14194688 0.010861371 0.43000001
0.14269593 0.010861371 0.43000001
0.14311141 0.010836111 0.42900002
0.14385873 0.010836111 0.42900002
0.14460604 0.010836111 0.42900002
0.14535336 0.010836111 0.42900002
0.14610069 0.010836111 0.42900002
0.14684799 0.010836111 0.42900002
0.14759532 0.010836111 0.42900002
0.14834264 0.010836111 0.42900002
0.14874242 0.010810853 0.42800003
0.149488 0.010810853 0.42800003
0.15023357 0.010810853 0.42800003
0.15097915 0.010810853 0.42800003
0.15172473 0.010810853 0.42800003
0.15247031 0.010810853 0.42800003
0.15321587 0.010810853 0.42800003
0.15396145 0.010810853 0.42800003
0.1550685 0.010836111 0.42900002
0.15581581 0.010836111 0.42900002
0.15656313 0.010836111 0.42900002
0.15731046 0.010836111 0.42900002
0.15805776 0.010836111 0.42900002
0.15880509 0.010836111 0.42900002
0.15955241 0.010836111 0.42900002
0.16029972 0.010836111 0.42900002
0.16104704 0.010836111 0.42900002
0.16141722 0.010810853 0.42800003
0.16254167 0.010836111 0.42900002
0.163289 0.010836111 0.42900002
0.16403632 0.010836111 0.42900002
0.16478363 0.010836111 0.42900002
0.1659168 0.010861371 0.43000001
0.16666587 0.010861371 0.43000001
0.16741492 0.010861371 0.43000001
0.16816399 0.010861371 0.43000001
0.16930586 0.01088663 0.43100002
0.12086345 0.012204452 0.45200002
0.1213817 0.012177452 0.45100003
0.12216734 0.012177452 0.45100003
0.12240773 0.01212345 0.44900003
0.12291553 0.012096449 0.44800001
0.12369595 0.012096449 0.44800001
0.12447636 0.012096449 0.44800001
0.12497719 0.012069448 0.44700003
0.12547453 0.012042447 0.44600001
0.12596838 0.012015446 0.44500002
0.12645875 0.011988445 0.44400004
0.12723221 0.011988445 0.44400004
0.12771735 0.011961443 0.44300002
0.12790897 0.011907442 0.44100001
0.12867719 0.011907442 0.44100001
0.12915188 0.011880441 0.44000003
0.1296231 0.01185344 0.43900001
0.13038784 0.01185344 0.43900001
0.13115257 0.01185344 0.43900001
0.13191731 0.01185344 0.43900001
0.13237981 0.011826439 0.43800002
0.13283883 0.011799438 0.43700001
0.13360009 0.011799438 0.43700001
0.13405387 0.011772437 0.43600002
0.13481338 0.011772437 0.43600002
0.13526195 0.011745436 0.43500003
0.13601972 0.011745436 0.43500003
0.13677749 0.011745436 0.43500003
0.13753526 0.011745436 0.43500003
0.13797511 0.011718434 0.43400002
0.13873115 0.011718434 0.43400002
0.13916577 0.011691433 0.43300003
0.13992006 0.011691433 0.43300003
0.14034946 0.011664432 0.43200001
0.14077538 0.011637432 0.43100002
0.14152619 0.011637432 0.43100002
0.14194688 0.011610431 0.43000001
0.14269593 0.011610431 0.43000001
0.143445 0.011610431 0.43000001
0.14419405 0.011610431 0.43000001
0.14494312 0.011610431 0.43000001
0.14569218 0.011610431 0.43000001
0.14644124 0.011610431 0.43000001
0.14684799 0.01158343 0.42900002
0.14759532 0.01158343 0.42900002
0.14868842 0.011610431 0.43000001
0.14908995 0.01158343 0.42900002
0.15018654 0.011610431 0.43000001
0.15093561 0.011610431 0.43000001
0.1513319 0.01158343 0.42900002
0.15207922 0.01158343 0.42900002
0.15282655 0.01158343 0.42900002
0.15357386 0.01158343 0.42900002
0.15432118 0.01158343 0.42900002
0.1550685 0.01158343 0.42900002
0.15581581 0.01158343 0.42900002
0.15656313 0.01158343 0.42900002
0.15731046 0.01158343 0.42900002
0.1584262 0.011610431 0.43000001
0.15880509 0.01158343 0.42900002
0.15992431 0.011610431 0.43000001
0.16029972 0.01158343 0.42900002
0.16142245 0.011610431 0.43000001
0.16179436 0.01158343 0.42900002
0.16254167 0.01158343 0.42900002
0.16366962 0.011610431 0.43000001
0.16441868 0.011610431 0.43000001
0.16516773 0.011610431 0.43000001
0.1659168 0.011610431 0.43000001
0.16705346 0.011637432 0.43100002
0.16780426 0.011637432 0.43100002
0.16855507 0.011637432 0.43100002
0.12060738 0.013049323 0.45400003
0.12139825 0.013049323 0.45400003
0.12165084 0.012991837 0.45200002
0.12216734 0.012963094 0.45100003
0.12295298 0.012963094 0.45100003
0.1231899 0.012905608 0.44900003
0.12369595 0.012876865 0.44800001
0.12447636 0.012876865 0.44800001
0.12525678 0.012876865 0.44800001
0.12575586 0.012848122 0.44700003
0.12625146 0.012819379 0.44600001
0.12674357 0.012790636 0.44500002
0.12723221 0.012761893 0.44400004
0.12800565 0.012761893 0.44400004
0.12848906 0.012733149 0.44300002
0.12867719 0.012675663 0.44100001
0.12944542 0.012675663 0.44100001
0.12991837 0.012646921 0.44000003
0.13068485 0.012646921 0.44000003
0.13115257 0.012618178 0.43900001
0.13191731 0.012618178 0.43900001
0.13268206 0.012618178 0.43900001
0.13344678 0.012618178 0.43900001
0.13390581 0.012589435 0.43800002
0.13436134 0.012560692 0.43700001
0.1351226 0.012560692 0.43700001
0.1355729 0.012531949 0.43600002
0.13633241 0.012531949 0.43600002
0.13677749 0.012503206 0.43500003
0.13753526 0.012503206 0.43500003
0.13829303 0.012503206 0.43500003
0.13873115 0.012474462 0.43400002
0.13948718 0.012474462 0.43400002
0.1402432 0.012474462 0.43400002
0.14099923 0.012474462 0.43400002
0.14110202 0.012416977 0.43200001
0.14152619 0.012388234 0.43100002
0.14227699 0.012388234 0.43100002
0.1430278 0.012388234 0.43100002
0.143445 0.012359491 0.43000001
0.14419405 0.012359491 0.43000001
0.14494312 0.012359491 0.43000001
0.14569218 0.012359491 0.43000001
0.1467818 0.012388234 0.43100002
0.1475326 0.012388234 0.43100002
0.14793935 0.012359491 0.43000001
0.1490342 0.012388234 0.43100002
0.14978501 0.012388234 0.43100002
0.15053581 0.012388234 0.43100002
0.15093561 0.012359491 0.43000001
0.15168466 0.012359491 0.43000001
0.15243372 0.012359491 0.43000001
0.15318277 0.012359491 0.43000001
0.15357386 0.012330748 0.42900002
0.15432118 0.012330748 0.42900002
0.15542996 0.012359491 0.43000001
0.15581581 0.012330748 0.42900002
0.15656313 0.012330748 0.42900002
0.15767714 0.012359491 0.43000001
0.1584262 0.012359491 0.43000001
0.15917526 0.012359491 0.43000001
0.15992431 0.012359491 0.43000001
0.16067338 0.012359491 0.43000001
0.16142245 0.012359491 0.43000001
0.1621715 0.012359491 0.43000001
0.16292056 0.012359491 0.43000001
0.16366962 0.012359491 0.43000001
0.16441868 0.012359491 0.43000001
0.16555186 0.012388234 0.43100002
0.16630265 0.012388234 0.43100002
0.16705346 0.012388234 0.43100002
0.16819359 0.012416977 0.43200001
0.16894613 0.012416977 0.43200001
0.12087303 0.013870676 0.45500001
0.12139825 0.013840191 0.45400003
0.12165084 0.013779221 0.45200002
0.12243822 0.013779221 0.45200002
0.12295298 0.013748736 0.45100003
0.1231899 0.013687766 0.44900003
0.12397205 0.013687766 0.44900003
0.12447636 0.013657281 0.44800001
0.12525678 0.013657281 0.44800001
0.1260372 0.013657281 0.44800001
0.12653454 0.013626796 0.44700003
0.12702839 0.013596311 0.44600001
0.12751876 0.013565826 0.44500002
0.12800565 0.013535341 0.44400004
0.1287791 0.013535341 0.44400004
0.12926076 0.013504856 0.44300002
0.12944542 0.013443886 0.44100001
0.12991837 0.0134134 0.44000003
0.13068485 0.0134134 0.44000003
0.13145132 0.0134134 0.44000003
0.13191731 0.013382915 0.43900001
0.13268206 0.013382915 0.43900001
0.13344678 0.013382915 0.43900001
0.13421153 0.013382915 0.43900001
0.1346688 0.01335243 0.43800002
0.1351226 0.013321945 0.43700001
0.13588385 0.013321945 0.43700001
0.13633241 0.01329146 0.43600002
0.13709192 0.01329146 0.43600002
0.13785143 0.01329146 0.43600002
0.13829303 0.013260975 0.43500003
0.1390508 0.013260975 0.43500003
0.13980858 0.013260975 0.43500003
0.14056635 0.013260975 0.43500003
0.14132412 0.013260975 0.43500003
0.14110202 0.013169521 0.43200001
0.14185455 0.013169521 0.43200001
0.14260709 0.013169521 0.43200001
0.1430278 0.013139036 0.43100002
0.14377859 0.013139036 0.43100002
0.14452939 0.013139036 0.43100002
0.1452802 0.013139036 0.43100002
0.14603099 0.013139036 0.43100002
0.1467818 0.013139036 0.43100002
0.14787491 0.013169521 0.43200001
0.14828341 0.013139036 0.43100002
0.1490342 0.013139036 0.43100002
0.15013254 0.013169521 0.43200001
0.15088508 0.013169521 0.43200001
0.15128662 0.013139036 0.43100002
0.15203741 0.013139036 0.43100002
0.15278822 0.013139036 0.43100002
0.15353902 0.013139036 0.43100002
0.15428983 0.013139036 0.43100002
0.15504062 0.013139036 0.43100002
0.15542996 0.013108551 0.43000001
0.15654223 0.013139036 0.43100002
0.15729302 0.013139036 0.43100002
0.15804383 0.013139036 0.43100002
0.15879463 0.013139036 0.43100002
0.15917526 0.013108551 0.43000001
0.15992431 0.013108551 0.43000001
0.16104704 0.013139036 0.43100002
0.16179784 0.013139036 0.43100002
0.16254865 0.013139036 0.43100002
0.16329944 0.013139036 0.43100002
0.16405025 0.013139036 0.43100002
0.16480105 0.013139036 0.43100002
0.16593596 0.013169521 0.43200001
0.1666885 0.013169521 0.43200001
0.16744106 0.013169521 0.43200001
0.16819359 0.013169521 0.43200001
0.12087303 0.014663286 0.45500001
0.12139825 0.014631059 0.45400003
0.12191997 0.014598832 0.45300001
0.12243822 0.014566605 0.45200002
0.12295298 0.014534377 0.45100003
0.1231899 0.014469923 0.44900003
0.12397205 0.014469923 0.44900003
0.12475421 0.014469923 0.44900003
0.12525678 0.014437697 0.44800001
0.1260372 0.014437697 0.44800001
0.12681761 0.014437697 0.44800001
0.12702839 0.014373243 0.44600001
0.12751876 0.014341016 0.44500002
0.12829395 0.014341016 0.44500002
0.12906915 0.014341016 0.44500002
0.12955254 0.014308789 0.44400004
0.13003246 0.014276562 0.44300002
0.13021363 0.014212108 0.44100001
0.13098186 0.014212108 0.44100001
0.13145132 0.014179881 0.44000003
0.13221781 0.014179881 0.44000003
0.1329843 0.014179881 0.44000003
0.13375077 0.014179881 0.44000003
0.13421153 0.014147654 0.43900001
0.13497627 0.014147654 0.43900001
0.13574101 0.014147654 0.43900001
0.13588385 0.0140832 0.43700001
0.13664511 0.0140832 0.43700001
0.13740635 0.0140832 0.43700001
0.1381676 0.0140832 0.43700001
0.13861094 0.014050973 0.43600002
0.1390508 0.014018746 0.43500003
0.13980858 0.014018746 0.43500003
0.14088948 0.014050973 0.43600002
0.14132412 0.014018746 0.43500003
0.14208189 0.014018746 0.43500003
0.14218292 0.013954292 0.43300003
0.14293721 0.013954292 0.43300003
0.14335965 0.013922065 0.43200001
0.14411218 0.013922065 0.43200001
0.14520006 0.013954292 0.43300003
0.14595436 0.013954292 0.43300003
0.14636981 0.013922065 0.43200001
0.14746292 0.013954292 0.43300003
0.1482172 0.013954292 0.43300003
0.14862745 0.013922065 0.43200001
0.14938 0.013922065 0.43200001
0.15013254 0.013922065 0.43200001
0.15088508 0.013922065 0.43200001
0.15163763 0.013922065 0.43200001
0.15239017 0.013922065 0.43200001
0.15278822 0.013889838 0.43100002
0.15353902 0.013889838 0.43100002
0.1546478 0.013922065 0.43200001
0.15540035 0.013922065 0.43200001
0.15579143 0.013889838 0.43100002
0.15654223 0.013889838 0.43100002
0.15729302 0.013889838 0.43100002
0.15804383 0.013889838 0.43100002
0.15879463 0.013889838 0.43100002
0.15954544 0.013889838 0.43100002
0.16029623 0.013889838 0.43100002
0.16104704 0.013889838 0.43100002
0.16217324 0.013922065 0.43200001
0.16292578 0.013922065 0.43200001
0.16367833 0.013922065 0.43200001
0.16443087 0.013922065 0.43200001
0.16518342 0.013922065 0.43200001
0.16593596 0.013922065 0.43200001
0.1666885 0.013922065 0.43200001
0.16744106 0.013922065 0.43200001
0.12087303 0.015455896 0.45500001
0.12139825 0.015421927 0.45400003
0.12218911 0.015421927 0.45400003
0.1227091 0.015387958 0.45300001
0.12322561 0.015353989 0.45200002
0.12373862 0.01532002 0.45100003
0.12424815 0.015286051 0.45000002
0.12475421 0.015252082 0.44900003
0.12525678 0.015218113 0.44800001
0.1260372 0.015218113 0.44800001
0.12681761 0.015218113 0.44800001
0.12702839 0.015150174 0.44600001
0.12751876 0.015116206 0.44500002
0.12858225 0.015150174 0.44600001
0.12906915 0.015116206 0.44500002
0.12955254 0.015082237 0.44400004
0.130326 0.015082237 0.44400004
0.13109945 0.015082237 0.44400004
0.13098186 0.01498033 0.44100001
0.13175008 0.01498033 0.44100001
0.13251831 0.01498033 0.44100001
0.1329843 0.014946361 0.44000003
0.13405475 0.01498033 0.44100001
0.13451725 0.014946361 0.44000003
0.13528372 0.014946361 0.44000003
0.13574101 0.014912392 0.43900001
0.13650574 0.014912392 0.43900001
0.13664511 0.014844454 0.43700001
0.13740635 0.014844454 0.43700001
0.1381676 0.014844454 0.43700001
0.13861094 0.014810485 0.43600002
0.13937046 0.014810485 0.43600002
0.14012997 0.014810485 0.43600002
0.14088948 0.014810485 0.43600002
0.14132412 0.014776516 0.43500003
0.14208189 0.014776516 0.43500003
0.14283966 0.014776516 0.43500003
0.14326732 0.014742547 0.43400002
0.14402334 0.014742547 0.43400002
0.14477937 0.014742547 0.43400002
0.14553539 0.014742547 0.43400002
0.14629142 0.014742547 0.43400002
0.14636981 0.014674609 0.43200001
0.14746292 0.014708578 0.43300003
0.14855951 0.014742547 0.43400002
0.1489715 0.014708578 0.43300003
0.14938 0.014674609 0.43200001
0.15013254 0.014674609 0.43200001
0.15088508 0.014674609 0.43200001
0.15163763 0.014674609 0.43200001
0.15239017 0.014674609 0.43200001
0.15314272 0.014674609 0.43200001
0.15389526 0.014674609 0.43200001
0.1546478 0.014674609 0.43200001
0.15540035 0.014674609 0.43200001
0.15615289 0.014674609 0.43200001
0.15690543 0.014674609 0.43200001
0.15765798 0.014674609 0.43200001
0.15841052 0.014674609 0.43200001
0.15916307 0.014674609 0.43200001
0.15991561 0.014674609 0.43200001
0.16066815 0.014674609 0.43200001
0.1614207 0.014674609 0.43200001
0.16217324 0.014674609 0.43200001
0.16330293 0.014708578 0.43300003
0.16405721 0.014708578 0.43300003
0.16481151 0.014708578 0.43300003
0.16594815 0.014742547 0.43400002
0.16670418 0.014742547 0.43400002
0.16746022 0.014742547 0.43400002
0.16860384 0.014776516 0.43500003
0.12087303 0.016248506 0.45500001
0.12139825 0.016212795 0.45400003
0.12218911 0.016212795 0.45400003
0.1227091 0.016177084 0.45300001
0.12322561 0.016141374 0.45200002
0.12401298 0.016141374 0.45200002
0.12452427 0.016105661 0.45100003
0.12503205 0.016069951 0.45000002
0.12553637 0.01603424 0.44900003
0.1260372 0.015998529 0.44800001
0.12681761 0.015998529 0.44800001
0.12702839 0.015927106 0.44600001
0.12780532 0.015927106 0.44600001
0.12829395 0.015891396 0.44500002
0.12906915 0.015891396 0.44500002
0.12955254 0.015855685 0.44400004
0.130326 0.015855685 0.44400004
0.13109945 0.015855685 0.44400004
0.13157588 0.015819974 0.44300002
0.13175008 0.015748551 0.44100001
0.13251831 0.015748551 0.44100001
0.13328652 0.015748551 0.44100001
0.13405475 0.015748551 0.44100001
0.13451725 0.01571284 0.44000003
0.13528372 0.01571284 0.44000003
0.13605021 0.01571284 0.44000003
0.13650574 0.01567713 0.43900001
0.13727048 0.01567713 0.43900001
0.13772079 0.015641419 0.43800002
0.1381676 0.015605708 0.43700001
0.13892886 0.015605708 0.43700001
0.13969012 0.015605708 0.43700001
0.14012997 0.015569997 0.43600002
0.14088948 0.015569997 0.43600002
0.14164899 0.015569997 0.43600002
0.14240851 0.015569997 0.43600002
0.14316802 0.015569997 0.43600002
0.14359742 0.015534286 0.43500003
0.14435519 0.015534286 0.43500003
0.14511296 0.015534286 0.43500003
0.14587073 0.015534286 0.43500003
0.14629142 0.015498575 0.43400002
0.14704746 0.015498575 0.43400002
0.14780349 0.015498575 0.43400002
0.14855951 0.015498575 0.43400002
0.14931554 0.015498575 0.43400002
0.15007156 0.015498575 0.43400002
0.15048006 0.015462864 0.43300003
0.15123436 0.015462864 0.43300003
0.15198864 0.015462864 0.43300003
0.15274292 0.015462864 0.43300003
0.1534972 0.015462864 0.43300003
0.15389526 0.015427153 0.43200001
0.15500578 0.015462864 0.43300003
0.15576006 0.015462864 0.43300003
0.15651436 0.015462864 0.43300003
0.15690543 0.015427153 0.43200001
0.15802293 0.015462864 0.43300003
0.15877721 0.015462864 0.43300003
0.1595315 0.015462864 0.43300003
0.16028579 0.015462864 0.43300003
0.16104007 0.015462864 0.43300003
0.16179436 0.015462864 0.43300003
0.16292405 0.015498575 0.43400002
0.16368008 0.015498575 0.43400002
0.1644361 0.015498575 0.43400002
0.16519213 0.015498575 0.43400002
0.16633053 0.015534286 0.43500003
0.1670883 0.015534286 0.43500003
0.16784607 0.015534286 0.43500003
0.16899143 0.015569997 0.43600002
0.12166564 0.017041117 0.45500001
0.12218911 0.017003663 0.45400003
0.12297998 0.017003663 0.45400003
0.12349822 0.016966211 0.45300001
0.12401298 0.016928757 0.45200002
0.12480037 0.016928757 0.45200002
0.1253099 0.016891304 0.45100003
0.12553637 0.016816398 0.44900003
0.12631853 0.016816398 0.44900003
0.12681761 0.016778946 0.44800001
0.12759802 0.016778946 0.44800001
0.12809189 0.016741492 0.44700003
0.12858225 0.01670404 0.44600001
0.12906915 0.016666586 0.44500002
0.12984434 0.016666586 0.44500002
0.130326 0.016629133 0.44400004
0.13109945 0.016629133 0.44400004
0.13187289 0.016629133 0.44400004
0.13234758 0.016591679 0.44300002
0.1328188 0.016554227 0.44200003
0.13328652 0.016516775 0.44100001
0.13435872 0.016554227 0.44200003
0.13482296 0.016516775 0.44100001
0.13559119 0.016516775 0.44100001
0.13605021 0.016479321 0.44000003
0.1368167 0.016479321 0.44000003
0.13758317 0.016479321 0.44000003
0.13803522 0.016441869 0.43900001
0.13879995 0.016441869 0.43900001
0.13924678 0.016404415 0.43800002
0.13969012 0.016366962 0.43700001
0.14045137 0.016366962 0.43700001
0.14121263 0.016366962 0.43700001
0.14197388 0.016366962 0.43700001
0.14240851 0.016329508 0.43600002
0.14316802 0.016329508 0.43600002
0.14392753 0.016329508 0.43600002
0.14435519 0.016292056 0.43500003
0.14511296 0.016292056 0.43500003
0.14587073 0.016292056 0.43500003
0.1466285 0.016292056 0.43500003
0.14738627 0.016292056 0.43500003
0.14814405 0.016292056 0.43500003
0.14890182 0.016292056 0.43500003
0.14931554 0.016254604 0.43400002
0.15007156 0.016254604 0.43400002
0.15048006 0.01621715 0.43300003
0.15158363 0.016254604 0.43400002
0.15198864 0.01621715 0.43300003
0.15274292 0.01621715 0.43300003
0.1534972 0.01621715 0.43300003
0.1542515 0.01621715 0.43300003
0.15500578 0.01621715 0.43300003
0.15611979 0.016254604 0.43400002
0.15687582 0.016254604 0.43400002
0.15763184 0.016254604 0.43400002
0.15838787 0.016254604 0.43400002
0.15914391 0.016254604 0.43400002
0.15989994 0.016254604 0.43400002
0.16065596 0.016254604 0.43400002
0.16141199 0.016254604 0.43400002
0.16216801 0.016254604 0.43400002
0.16329944 0.016292056 0.43500003
0.16405721 0.016292056 0.43500003
0.16481498 0.016292056 0.43500003
0.16557276 0.016292056 0.43500003
0.16633053 0.016292056 0.43500003
0.16747241 0.016329508 0.43600002
0.16823192 0.016329508 0.43600002
0.16899143 0.016329508 0.43600002
0.12166564 0.017833726 0.45500001
0.12245825 0.017833726 0.45500001
0.12297998 0.017794531 0.45400003
0.12377085 0.017794531 0.45400003
0.12428735 0.017755335 0.45300001
0.12480037 0.017716141 0.45200002
0.1253099 0.017676946 0.45100003
0.12609555 0.017676946 0.45100003
0.12631853 0.017598556 0.44900003
0.12710068 0.017598556 0.44900003
0.12759802 0.017559361 0.44800001
0.12837844 0.017559361 0.44800001
0.12858225 0.017480971 0.44600001
0.12935919 0.017480971 0.44600001
0.12984434 0.017441776 0.44500002
0.13061953 0.017441776 0.44500002
0.13109945 0.017402582 0.44400004
0.13187289 0.017402582 0.44400004
0.13234758 0.017363386 0.44300002
0.1328188 0.017324191 0.44200003
0.13358876 0.017324191 0.44200003
0.13435872 0.017324191 0.44200003
0.13482296 0.017284997 0.44100001
0.13559119 0.017284997 0.44100001
0.13635941 0.017284997 0.44100001
0.1368167 0.017245801 0.44000003
0.13758317 0.017245801 0.44000003
0.13834965 0.017245801 0.44000003
0.13879995 0.017206606 0.43900001
0.13956469 0.017206606 0.43900001
0.14032944 0.017206606 0.43900001
0.14045137 0.017128216 0.43700001
0.14121263 0.017128216 0.43700001
0.14197388 0.017128216 0.43700001
0.14273514 0.017128216 0.43700001
0.14349639 0.017128216 0.43700001
0.14392753 0.01708902 0.43600002
0.14468704 0.01708902 0.43600002
0.14511296 0.017049827 0.43500003
0.14587073 0.017049827 0.43500003
0.1466285 0.017049827 0.43500003
0.14738627 0.017049827 0.43500003
0.14814405 0.017049827 0.43500003
0.14890182 0.017049827 0.43500003
0.14965959 0.017049827 0.43500003
0.15041736 0.017049827 0.43500003
0.1508276 0.017010631 0.43400002
0.15158363 0.017010631 0.43400002
0.15233965 0.017010631 0.43400002
0.15309568 0.017010631 0.43400002
0.1538517 0.017010631 0.43400002
0.15460774 0.017010631 0.43400002
0.15536377 0.017010631 0.43400002
0.15611979 0.017010631 0.43400002
0.15687582 0.017010631 0.43400002
0.15763184 0.017010631 0.43400002
0.15838787 0.017010631 0.43400002
0.1595106 0.017049827 0.43500003
0.16026837 0.017049827 0.43500003
0.16102614 0.017049827 0.43500003
0.1617839 0.017049827 0.43500003
0.16254167 0.017049827 0.43500003
0.16329944 0.017049827 0.43500003
0.16405721 0.017049827 0.43500003
0.16519387 0.01708902 0.43600002
0.16557276 0.017049827 0.43500003
0.1667129 0.01708902 0.43600002
0.16747241 0.01708902 0.43600002
0.16823192 0.01708902 0.43600002
0.16937903 0.017128216 0.43700001
0.12193565 0.018790085 0.45900002
0.12246783 0.018749148 0.45800003
0.12245825 0.018626336 0.45500001
0.12325086 0.018626336 0.45500001
0.12377085 0.018585399 0.45400003
0.12428735 0.018544462 0.45300001
0.12480037 0.018503524 0.45200002
0.12558776 0.018503524 0.45200002
0.12609555 0.018462589 0.45100003
0.12659986 0.018421652 0.45000002
0.12738375 0.018421652 0.45000002
0.12788284 0.018380715 0.44900003
0.12837844 0.018339777 0.44800001
0.12858225 0.018257903 0.44600001
0.12935919 0.018257903 0.44600001
0.12984434 0.018216966 0.44500002
0.13061953 0.018216966 0.44500002
0.13139471 0.018216966 0.44500002
0.13187289 0.018176029 0.44400004
0.13264634 0.018176029 0.44400004
0.1331193 0.018135091 0.44300002
0.133891 0.018135091 0.44300002
0.1346627 0.018135091 0.44300002
0.13512869 0.018094156 0.44200003
0.13589865 0.018094156 0.44200003
0.13635941 0.018053219 0.44100001
0.13712764 0.018053219 0.44100001
0.13789585 0.018053219 0.44100001
0.13834965 0.018012282 0.44000003
0.13911612 0.018012282 0.44000003
0.13956469 0.017971344 0.43900001
0.14032944 0.017971344 0.43900001
0.14109416 0.017971344 0.43900001
0.14153577 0.017930407 0.43800002
0.14229876 0.017930407 0.43800002
0.14306176 0.017930407 0.43800002
0.14349639 0.01788947 0.43700001
0.14425763 0.01788947 0.43700001
0.14501889 0.01788947 0.43700001
0.14544655 0.017848533 0.43600002
0.14620607 0.017848533 0.43600002
0.14696558 0.017848533 0.43600002
0.14738627 0.017807595 0.43500003
0.14814405 0.017807595 0.43500003
0.14890182 0.017807595 0.43500003
0.14965959 0.017807595 0.43500003
